106.000000 -1966.000000 -79.000000
104.000605 -1966.038823 -78.969785
102.001210 -1966.077646 -78.939571
100.001815 -1966.116470 -78.909356
98.002421 -1966.155293 -78.879142
96.003026 -1966.194116 -78.848927
94.003631 -1966.232939 -78.818713
92.004236 -1966.271762 -78.788498
90.004841 -1966.310586 -78.758283
88.005446 -1966.349409 -78.728069
86.006051 -1966.388232 -78.697854
84.006656 -1966.427055 -78.667640
82.007262 -1966.465878 -78.637425
80.007867 -1966.504702 -78.607210
78.008472 -1966.543525 -78.576996
76.009077 -1966.582348 -78.546781
74.009682 -1966.621171 -78.516567
72.010287 -1966.659994 -78.486352
70.010892 -1966.698818 -78.456138
68.011498 -1966.737641 -78.425923
66.012103 -1966.776464 -78.395708
64.012708 -1966.815287 -78.365494
62.013313 -1966.854110 -78.335279
60.013918 -1966.892934 -78.305065
58.014523 -1966.931757 -78.274850
56.015128 -1966.970580 -78.244636
54.015733 -1967.009403 -78.214421
52.016339 -1967.048226 -78.184206
50.016944 -1967.087050 -78.153992
48.017549 -1967.125873 -78.123777
46.018154 -1967.164696 -78.093563
44.018759 -1967.203519 -78.063348
42.019364 -1967.242342 -78.033133
40.019969 -1967.281166 -78.002919
38.020574 -1967.319989 -77.972704
36.021180 -1967.358812 -77.942490
34.021785 -1967.397635 -77.912275
32.022390 -1967.436458 -77.882061
30.022995 -1967.475282 -77.851846
28.023600 -1967.514105 -77.821631
26.024205 -1967.552928 -77.791417
24.024810 -1967.591751 -77.761202
22.025416 -1967.630574 -77.730988
20.026021 -1967.669398 -77.700773
18.026626 -1967.708221 -77.670559
16.027231 -1967.747044 -77.640344
14.027836 -1967.785867 -77.610129
12.028441 -1967.824690 -77.579915
10.029046 -1967.863514 -77.549700
8.029651 -1967.902337 -77.519486
6.030257 -1967.941160 -77.489271
3.000000 -1968.000000 -77.443478
2.536759 -1966.054388 -77.443478
2.073518 -1964.108775 -77.443478
1.610277 -1962.163163 -77.443478
1.147036 -1960.217550 -77.443478
0.683795 -1958.271938 -77.443478
0.220554 -1956.326325 -77.443478
-0.242687 -1954.380713 -77.443478
-0.705928 -1952.435101 -77.443478
-1.169169 -1950.489488 -77.443478
-1.632411 -1948.543876 -77.443478
-2.095652 -1946.598263 -77.443478
-2.558893 -1944.652651 -77.443478
-3.022134 -1942.707038 -77.443478
-3.485375 -1940.761426 -77.443478
-3.948616 -1938.815814 -77.443478
-4.411857 -1936.870201 -77.443478
-5.000000 -1934.400000 -77.443478
-6.892771 -1935.020364 -77.623938
-8.785543 -1935.640727 -77.804398
-10.678314 -1936.261091 -77.984857
-12.571085 -1936.881455 -78.165317
-14.463856 -1937.501819 -78.345777
-16.356628 -1938.122182 -78.526237
-18.249399 -1938.742546 -78.706696
-20.142170 -1939.362910 -78.887156
-22.034942 -1939.983273 -79.067616
-23.927713 -1940.603637 -79.248076
-25.820484 -1941.224001 -79.428535
-27.713255 -1941.844365 -79.608995
-29.606027 -1942.464728 -79.789455
-31.498798 -1943.085092 -79.969914
-33.391569 -1943.705456 -80.150374
-35.284341 -1944.325819 -80.330834
-37.177112 -1944.946183 -80.511294
-39.069883 -1945.566547 -80.691753
-40.962655 -1946.186910 -80.872213
-42.855426 -1946.807274 -81.052673
-44.748197 -1947.427638 -81.233132
-46.640968 -1948.048002 -81.413592
-48.533740 -1948.668365 -81.594052
-50.426511 -1949.288729 -81.774512
-52.319282 -1949.909093 -81.954971
-54.212054 -1950.529456 -82.135431
-56.104825 -1951.149820 -82.315891
-57.997596 -1951.770184 -82.496351
-59.890367 -1952.390548 -82.676810
-61.783139 -1953.010911 -82.857270
-63.675910 -1953.631275 -83.037730
-65.568681 -1954.251639 -83.218189
-67.461453 -1954.872002 -83.398649
-69.354224 -1955.492366 -83.579109
-71.246995 -1956.112730 -83.759569
-73.139766 -1956.733094 -83.940028
-75.032538 -1957.353457 -84.120488
-76.925309 -1957.973821 -84.300948
-78.818080 -1958.594185 -84.481408
-80.710852 -1959.214548 -84.661867
-82.603623 -1959.834912 -84.842327
-84.496394 -1960.455276 -85.022787
-86.389165 -1961.075640 -85.203246
-88.281937 -1961.696003 -85.383706
-90.174708 -1962.316367 -85.564166
-92.067479 -1962.936731 -85.744626
-93.960251 -1963.557094 -85.925085
-95.853022 -1964.177458 -86.105545
-97.745793 -1964.797822 -86.286005
-99.638564 -1965.418186 -86.466464
-101.531336 -1966.038549 -86.646924
-103.424107 -1966.658913 -86.827384
-105.316878 -1967.279277 -87.007844
-107.209650 -1967.899640 -87.188303
-109.102421 -1968.520004 -87.368763
-110.995192 -1969.140368 -87.549223
-112.887964 -1969.760731 -87.729683
-114.780735 -1970.381095 -87.910142
-116.673506 -1971.001459 -88.090602
-118.566277 -1971.621823 -88.271062
-120.459049 -1972.242186 -88.451521
-122.351820 -1972.862550 -88.631981
-124.244591 -1973.482914 -88.812441
-126.137363 -1974.103277 -88.992901
-128.030134 -1974.723641 -89.173360
-129.922905 -1975.344005 -89.353820
-131.815676 -1975.964369 -89.534280
-133.708448 -1976.584732 -89.714740
-135.601219 -1977.205096 -89.895199
-137.493990 -1977.825460 -90.075659
-139.386762 -1978.445823 -90.256119
-141.279533 -1979.066187 -90.436578
-143.172304 -1979.686551 -90.617038
-145.065075 -1980.306915 -90.797498
-146.957847 -1980.927278 -90.977958
-148.850618 -1981.547642 -91.158417
-150.743389 -1982.168006 -91.338877
-152.636161 -1982.788369 -91.519337
-154.528932 -1983.408733 -91.699797
-156.421703 -1984.029097 -91.880256
-158.314474 -1984.649461 -92.060716
-160.207246 -1985.269824 -92.241176
-162.100017 -1985.890188 -92.421635
-163.992788 -1986.510552 -92.602095
-165.885560 -1987.130915 -92.782555
-167.778331 -1987.751279 -92.963015
-169.671102 -1988.371643 -93.143474
-171.563873 -1988.992006 -93.323934
-173.456645 -1989.612370 -93.504394
-175.349416 -1990.232734 -93.684853
-177.242187 -1990.853098 -93.865313
-179.134959 -1991.473461 -94.045773
-181.027730 -1992.093825 -94.226233
-182.920501 -1992.714189 -94.406692
-184.813273 -1993.334552 -94.587152
-186.706044 -1993.954916 -94.767612
-188.598815 -1994.575280 -94.948072
-190.491586 -1995.195644 -95.128531
-192.384358 -1995.816007 -95.308991
-194.277129 -1996.436371 -95.489451
-196.169900 -1997.056735 -95.669910
-198.062672 -1997.677098 -95.850370
-199.955443 -1998.297462 -96.030830
-201.848214 -1998.917826 -96.211290
-203.740985 -1999.538190 -96.391749
-205.633757 -2000.158553 -96.572209
-207.526528 -2000.778917 -96.752669
-209.419299 -2001.399281 -96.933129
-211.312071 -2002.019644 -97.113588
-213.204842 -2002.640008 -97.294048
-215.097613 -2003.260372 -97.474508
-216.990384 -2003.880736 -97.654967
-218.883156 -2004.501099 -97.835427
-220.775927 -2005.121463 -98.015887
-222.668698 -2005.741827 -98.196347
-224.561470 -2006.362190 -98.376806
-226.454241 -2006.982554 -98.557266
-228.347012 -2007.602918 -98.737726
-230.239783 -2008.223282 -98.918185
-232.132555 -2008.843645 -99.098645
-234.025326 -2009.464009 -99.279105
-235.918097 -2010.084373 -99.459565
-237.810869 -2010.704736 -99.640024
-239.703640 -2011.325100 -99.820484
-241.596411 -2011.945464 -100.000944
-243.489182 -2012.565827 -100.181404
-245.381954 -2013.186191 -100.361863
-247.274725 -2013.806555 -100.542323
-249.167496 -2014.426919 -100.722783
-251.060268 -2015.047282 -100.903242
-252.953039 -2015.667646 -101.083702
-254.845810 -2016.288010 -101.264162
-256.738582 -2016.908373 -101.444622
-258.631353 -2017.528737 -101.625081
-260.524124 -2018.149101 -101.805541
-262.416895 -2018.769465 -101.986001
-264.309667 -2019.389828 -102.166461
-266.202438 -2020.010192 -102.346920
-268.095209 -2020.630556 -102.527380
-271.866667 -2021.866667 -102.886957
-271.858876 -2021.882249 -104.886881
-271.851085 -2021.897831 -106.886805
-271.843294 -2021.913413 -108.886729
-271.835503 -2021.928995 -110.886653
-271.827712 -2021.944577 -112.886577
-271.819920 -2021.960159 -114.886501
-271.812129 -2021.975741 -116.886425
-271.800000 -2022.000000 -120.000000
-271.127327 -2023.883484 -120.000000
-270.454654 -2025.766968 -120.000000
-269.781982 -2027.650451 -120.000000
-269.109309 -2029.533935 -120.000000
-268.436636 -2031.417419 -120.000000
-267.763963 -2033.300903 -120.000000
